# .PCD v0.7 - Point Cloud Data file format
VERSION 0.7
FIELDS x y z intensity
SIZE 4 4 4 4
TYPE F F F F
COUNT 1 1 1 1
WIDTH 1451
HEIGHT 1
VIEWPOINT 0 0 0 1 0 0 0
POINTS 1451
DATA ascii
-11.587489 1.5531132 2.3106728 0
9.0225105 1.5431132 2.3206728 0
8.9725103 1.6231132 2.3006728 0
7.1225109 2.8131132 2.3006728 0
6.9325104 3.1481133 2.3906727 0
6.877511 3.2331133 2.3756728 0
6.7725105 3.3931131 2.3406727 0
6.8225107 3.3131132 2.3606727 0
6.7025108 3.4931133 2.3206728 0
6.7325106 3.5731132 2.3306727 0
-10.317489 3.6431131 2.3906727 0
6.8625107 3.6281133 2.3656726 0
6.9325109 3.6531131 2.3806727 0
-10.237489 3.7031131 2.3806727 0
-10.157489 3.7531133 2.3606727 0
-10.042488 3.8281131 2.3406727 0
-9.9474888 3.8931131 2.3206728 0
-9.8474894 3.9631131 2.3006728 0
-8.2974892 5.0931129 2.3306727 0
-8.3474894 5.1831131 2.3406727 0
-8.4074888 5.283113 2.3406727 0
-8.4674892 5.3631129 2.3506727 0
-8.5174885 5.4531131 2.3606727 0
-8.5774889 5.533113 2.3706727 0
-8.6624889 5.6531134 2.3856726 0
6.062511 5.9331131 2.3206728 0
6.0025105 6.0231133 2.3006728 0
-9.0724888 6.2381134 2.3456726 0
-9.1274891 6.323113 2.3606727 0
-9.2374887 6.493113 2.3906727 0
-9.1874886 6.4131131 2.3806727 0
-9.332489 6.6481133 2.3056726 0
-9.4274893 6.783113 2.3306727 0
-9.3774891 6.7131133 2.3106728 0
-9.4824886 6.8731127 2.3456726 0
-9.5424881 6.9581127 2.3606727 0
-9.582489 7.0331135 2.3356729 0
-9.6508226 7.1297798 2.3473394 0
4.2625108 7.1531129 2.3806727 0
-9.747489 7.2731133 2.3406727 0
4.2675109 7.243113 2.3856726 0
-9.8074884 7.3631129 2.3606727 0
-9.7774887 7.3131132 2.3506727 0
-9.8474894 7.4331131 2.3706727 0
5.3025107 7.493113 2.3106728 0
-9.9274883 7.5481129 2.3856726 0
5.2625108 7.5231133 2.3106728 0
4.562511 8.263113 2.3006728 0
4.4658442 8.3764467 2.3606727 0
4.5025105 8.3431129 2.3106728 0
4.3825111 8.4731131 2.3656726 0
4.4225106 8.4364462 2.3340061 0
4.3325105 8.5497799 2.3373394 0
4.2675104 8.6531124 2.3306727 0
4.3025107 8.6031132 2.3406727 0
4.1925106 8.7931128 2.3106728 0
4.2425108 8.7081127 2.3406727 0
4.1525111 8.8564463 2.3440058 0
4.1025109 8.9331131 2.3706727 0
4.0275106 9.0431137 2.3456726 0
3.9675107 9.1281128 2.3556728 0
3.8825109 9.263113 2.3406727 0
3.9325109 9.2031126 2.3306727 0
-11.007489 9.3431129 2.3706727 0
3.7925107 9.3931131 2.3506727 0
3.8325107 9.3331127 2.3506727 0
-10.927488 9.428113 2.3556728 0
3.7625108 9.4631128 2.3606727 0
-10.867489 9.513113 2.3506727 0
3.6925108 9.553113 2.3806727 0
3.7025108 9.5331135 2.3706727 0
-10.952489 9.6531134 2.3756728 0
3.5325108 9.7031126 2.3906727 0
-11.437489 10.353113 2.3056726 0
-11.517488 10.473113 2.3206728 0
-11.567489 10.573113 2.3406727 0
-11.627489 10.623113 2.3506727 0
-11.677489 10.723113 2.3606727 0
2.8725109 10.763113 2.3056726 0
-11.747489 10.843113 2.3806727 0
2.8325107 10.843113 2.3206728 0
-11.717489 10.923113 2.3806727 0
-11.637489 10.973113 2.3806727 0
2.7925107 10.913113 2.3306727 0
-11.537489 11.043113 2.3706727 0
1.6825109 11.053113 2.3006728 0
1.8575108 11.068113 2.3056726 0
2.6925108 11.063113 2.3506727 0
2.7325108 11.003113 2.3406727 0
-11.447489 11.113113 2.3606727 0
-11.367489 11.173113 2.3606727 0
1.5825108 11.183113 2.3206728 0
1.6325108 11.113113 2.3106728 0
1.9425108 11.138113 2.3256726 0
2.5825107 11.193113 2.3006728 0
2.6258442 11.14978 2.3440061 0
-11.247489 11.248114 2.3456726 0
1.5125109 11.283113 2.3406727 0
2.0225108 11.203113 2.3406727 0
2.1325109 11.273113 2.3606727 0
2.5391774 11.263112 2.364006 0
-11.117489 11.333113 2.3306727 0
1.4525108 11.383113 2.3506727 0
2.1625109 11.303113 2.3006728 0
2.4625108 11.373113 2.3406727 0
2.5025108 11.333113 2.3306727 0
-11.017488 11.403113 2.3306727 0
-10.937489 11.453113 2.3206728 0
1.4025109 11.473113 2.3706727 0
2.3825109 11.493113 2.3606727 0
2.4125109 11.443113 2.3506727 0
-10.857489 11.503113 2.3106728 0
-10.787489 11.553113 2.3106728 0
2.3525109 11.533113 2.3606727 0
-10.727489 11.603113 2.3006728 0
-10.672489 11.628113 2.3006728 0
-9.372489 12.468113 2.3156729 0
-9.2774887 12.553113 2.3106728 0
-9.1874886 12.603113 2.3006728 0
-8.9674892 12.743113 2.3906727 0
-8.8874893 12.793113 2.3806727 0
-8.832489 12.838113 2.3756728 0
-8.7274885 12.903113 2.3606727 0
-8.6474886 12.953113 2.3506727 0
1.4225109 12.933113 2.3006728 0
-8.5674887 13.013113 2.3406727 0
-8.4874887 13.063113 2.3306727 0
1.3725108 13.023113 2.3206728 0
-8.4074888 13.123113 2.3206728 0
-8.3174887 13.183113 2.3106728 0
1.2625109 13.183113 2.3506727 0
1.3025109 13.113113 2.3406727 0
1.1925108 13.283113 2.3206728 0
1.2325108 13.218113 2.3256726 0
1.1525109 13.34978 2.3406727 0
1.0725108 13.438112 2.3356729 0
1.1025108 13.408113 2.3606727 0
0.95251083 13.593113 2.3606727 0
1.0158442 13.533113 2.3540061 0
0.93251085 13.648113 2.3756728 0
0.82251084 13.853113 2.3206728 0
0.90251088 13.873113 2.3306727 0
0.75251085 13.933113 2.3306727 0
0.68251085 14.023113 2.3506727 0
1.0025109 14.063113 2.3906727 0
0.58251089 14.183113 2.3806727 0
0.61751086 14.118113 2.3656726 0
0.53251088 14.253113 2.3906727 0
0.11251087 14.833113 2.3006728 0
-5.687489 14.963113 2.3206728 0
0.057510875 14.953114 2.3106728 0
-5.6774888 15.003113 2.3206728 0
-5.5874891 15.063113 2.3306727 0
0.0075108763 15.053113 2.3256726 0
-5.5074892 15.113112 2.3306727 0
-5.4474888 15.163113 2.3306727 0
-0.10748912 15.193113 2.3106728 0
-0.057489119 15.133113 2.3331728 0
-5.352489 15.223112 2.3356729 0
-5.2874889 15.263113 2.3406727 0
-0.14498913 15.250613 2.3556728 0
-5.2174892 15.313113 2.3406727 0
-5.1474891 15.343113 2.3406727 0
-1.2324891 15.378113 2.3456726 0
-1.1624891 15.333113 2.3631728 0
-1.0641557 15.366446 2.3506727 0
-0.21082246 15.353112 2.3340061 0
-5.0574889 15.423113 2.3506727 0
-4.997489 15.483113 2.3506727 0
-1.2708224 15.456447 2.3573394 0
-1.0074891 15.423113 2.3406727 0
-0.9324891 15.443113 2.3606727 0
-0.88748908 15.463113 2.3806727 0
-0.30748913 15.493113 2.3206728 0
-0.26148909 15.437113 2.3466728 0
-4.9524889 15.553113 2.3306727 0
-1.3424891 15.553113 2.3806727 0
-0.81748909 15.558113 2.3356729 0
-0.76748908 15.543114 2.3806727 0
-0.6824891 15.583113 2.3906727 0
-0.34248912 15.545612 2.3606727 0
-4.9224892 15.618113 2.3406727 0
-4.8974891 15.653113 2.3306727 0
-1.3974891 15.653113 2.3906727 0
-0.76748914 15.613112 2.3106728 0
-0.69748908 15.643113 2.3306727 0
-0.4274891 15.678113 2.3606727 0
-0.38748911 15.603113 2.3406727 0
-4.8508224 15.753113 2.3606727 0
-1.4874891 15.793113 2.3106728 0
-0.46748912 15.773113 2.3806727 0
-4.7808223 15.866446 2.3540061 0
-1.5274891 15.858112 2.3256726 0
-0.54248911 15.843113 2.3056726 0
-4.7324891 15.948112 2.3506727 0
-4.6574888 16.073112 2.3106728 0
-4.5924892 16.193113 2.3306727 0
-4.6074891 16.233112 2.3006728 0
-4.5424891 16.288113 2.3406727 0
-4.5449891 16.323112 2.3306727 0
-4.4674892 16.388111 2.3556728 0
-4.5074892 16.403112 2.3206728 0
-4.4508224 16.463114 2.3506727 0
-4.4224892 16.538113 2.3581727 0
-2.4074891 17.153112 2.3706727 0
-2.3774891 17.188114 2.3806727 0
-2.4524889 17.223112 2.3856726 0
-2.3574891 17.213114 2.3806727 0
-2.2874892 17.253113 2.3906727 0
-18.74749 18.143112 2.3306727 0
-18.657488 18.183113 2.3306727 0
-18.56749 18.253113 2.3206728 0
-18.447489 18.333113 2.3156729 0
-18.337488 18.413113 2.3106728 0
-18.227489 18.493113 2.3106728 0
-18.127489 18.553112 2.3006728 0
-18.087488 18.573112 2.3006728 0
-3.9174891 19.403112 2.3006728 0
3.9425108 -12.146887 2.4806728 0
3.8325107 -12.006886 2.4606729 0
3.7625108 -11.886887 2.4306729 0
3.6625109 -11.756886 2.4106729 0
3.0325108 -10.906886 2.4106729 0
3.1025107 -10.956886 2.4906728 0
3.0525107 -10.846887 2.4706728 0
2.9525108 -10.726887 2.4506729 0
2.9025109 -10.596887 2.4306729 0
2.8125107 -10.496886 2.4106729 0
2.5925107 -10.146887 2.4806728 0
2.5225108 -10.046886 2.4606729 0
2.4725108 -9.9568863 2.4406729 0
-3.5774891 -9.8268862 2.4706728 0
-2.8574891 -9.8268862 2.4306729 0
2.4025109 -9.8668861 2.4206729 0
-4.017489 -9.7468863 2.4906728 0
-3.467489 -9.7518864 2.4506729 0
-2.937489 -9.7168865 2.4106729 0
-2.8874891 -9.7868862 2.4206729 0
-4.1174889 -9.6268864 2.4706728 0
-4.0674891 -9.6768866 2.4806728 0
-3.372489 -9.6818867 2.4306729 0
-3.2774889 -9.6168861 2.4106729 0
-2.987489 -9.6468868 2.4006729 0
-4.1474891 -9.5468864 2.4606729 0
-3.177489 -9.5468864 2.4006729 0
-4.207489 -9.4468861 2.445673 0
-4.267489 -9.3568869 2.4306729 0
-4.3374891 -9.2568865 2.4206729 0
-4.4474893 -9.1068869 2.4106729 0
-4.3974891 -9.1768866 2.4106729 0
-4.497489 -9.0368862 2.4006729 0
-4.5574889 -8.9318867 2.4906728 0
-4.6174889 -8.8468866 2.4806728 0
-4.6774888 -8.7518864 2.4706728 0
-2.3674891 -8.7068863 2.4906728 0
-4.7524891 -8.6368866 2.4606729 0
-2.247489 -8.6318865 2.4756727 0
-4.8174891 -8.5568867 2.4506729 0
-2.1524892 -8.5618868 2.4706728 0
-2.062489 -8.5118866 2.4506729 0
-1.7608224 -8.5202208 2.4406729 0
-2.0474892 -8.486887 2.4506729 0
-1.9624891 -8.446887 2.4356728 0
-1.8274891 -8.4618874 2.4306729 0
-1.6708225 -8.4402199 2.4240062 0
-1.8924891 -8.3918867 2.4206729 0
-1.5874891 -8.3568869 2.4006729 0
-0.97748911 -7.8568864 2.4906728 0
-0.87748909 -7.7868867 2.4806728 0
-0.79748911 -7.7368865 2.4706728 0
-0.7374891 -7.6868868 2.4706728 0
-0.64748907 -7.6268864 2.4756727 0
-5.497489 -7.5368867 2.4906728 0
-0.54748911 -7.5568867 2.4556727 0
-0.48248911 -7.5118866 2.445673 0
-5.5574889 -7.4368868 2.4806728 0
-0.4274891 -7.4718866 2.4406729 0
-0.34748912 -7.4218864 2.4306729 0
-5.6274891 -7.3568864 2.4706728 0
-0.30748913 -7.3968868 2.4206729 0
-0.24248911 -7.3568864 2.4156728 0
-5.6824889 -7.2668867 2.4606729 0
-0.14748912 -7.2868867 2.4106729 0
-0.057489123 -7.2368865 2.4106729 0
-5.7574892 -7.1368866 2.4506729 0
0.057510875 -7.1518865 2.445673 0
-5.8274889 -7.0418863 2.4406729 0
0.13251087 -7.0868864 2.4806728 0
0.23251086 -7.0368867 2.4706728 0
-5.8974891 -6.9368868 2.4306729 0
0.35751086 -6.9468865 2.4756727 0
0.40251088 -6.9268866 2.4506729 0
-5.9674888 -6.8368864 2.4206729 0
0.45251086 -6.8768864 2.4606729 0
0.52251089 -6.8418865 2.4556727 0
-6.0324888 -6.7468863 2.4106729 0
0.57751083 -6.7918863 2.4506729 0
0.6658442 -6.7402205 2.4306729 0
-6.0874891 -6.6568866 2.4106729 0
0.76584417 -6.6702199 2.4173396 0
0.84584409 -6.6268868 2.4273396 0
-6.1374888 -6.5618868 2.4006729 0
0.97251087 -6.5968866 2.4406729 0
1.0825108 -6.5768867 2.4406729 0
1.1725109 -6.5468864 2.4406729 0
1.2825109 -6.5268865 2.4406729 0
1.3925109 -6.4768867 2.4306729 0
1.4725108 -6.4168868 2.4206729 0
1.5725108 -6.3418865 2.4106729 0
1.6725109 -6.2868867 2.4006729 0
1.7625108 -6.2318869 2.4006729 0
-7.5474892 -4.4168868 2.4306729 0
-7.6174889 -4.3268867 2.4306729 0
-7.5774889 -4.3668866 2.4306729 0
-7.6274891 -4.2668867 2.4306729 0
2.835844 -4.1668868 2.4340062 0
2.9425108 -4.1568871 2.4356728 0
3.0325108 -4.1518869 2.4406729 0
3.1358442 -4.1468868 2.4506729 0
3.2258441 -4.1402202 2.4573395 0
3.3391774 -4.1235528 2.4573395 0
3.4325109 -4.1268868 2.4806728 0
3.5325108 -4.1168866 2.4906728 0
4.1825109 -4.0568867 2.4106729 0
4.272511 -4.0568867 2.4206729 0
4.3525109 -4.0468864 2.4306729 0
4.4275107 -4.0368867 2.445673 0
4.5725107 -4.0268865 2.4606729 0
1.8425108 -3.9568868 2.4706728 0
4.6175108 -3.9618869 2.4556727 0
4.6125107 -3.8768866 2.4406729 0
1.8375108 -3.7668867 2.445673 0
1.9625108 -3.7268867 2.4406729 0
2.0575109 -3.7318869 2.4506729 0
2.1625109 -3.7168868 2.4506729 0
2.2525108 -3.7168868 2.4606729 0
2.3825109 -3.7068868 2.4606729 0
4.6125107 -3.7868867 2.4206729 0
2.4925108 -3.6968868 2.4606729 0
2.5825107 -3.6868868 2.4706728 0
-8.1324883 -3.5618868 2.4606729 0
4.5925107 -3.5368867 2.4906728 0
-8.2274885 -3.4268868 2.4706728 0
-8.2774887 -3.3568866 2.4706728 0
-8.4074888 -3.2068868 2.4906728 0
-8.3224888 -3.2918868 2.4806728 0
6.9625106 -2.3668866 2.4006729 0
7.0325108 -2.3168867 2.4106729 0
7.0725107 -2.2868867 2.4206729 0
7.1375108 -2.2568867 2.4356728 0
7.2225108 -2.2168868 2.4506729 0
7.2825108 -2.1868868 2.4606729 0
7.3625107 -2.1618867 2.4406729 0
7.4825106 -2.1168866 2.4006729 0
7.5825105 -2.0868866 2.4106729 0
7.6725106 -2.0468867 2.4106729 0
7.7825108 -2.0068867 2.4206729 0
7.8725109 -1.9668868 2.4206729 0
7.9725108 -1.9268867 2.4306729 0
-9.3374891 -1.8068867 2.4106729 0
-9.2424889 -1.8868867 2.4156728 0
8.0625105 -1.8868867 2.4406729 0
8.1625109 -1.8468868 2.4406729 0
8.2725105 -1.8168867 2.4506729 0
8.4225111 -1.8068867 2.4606729 0
-9.3674889 -1.7302202 2.4306729 0
8.3525105 -1.7768867 2.4306729 0
8.4675102 -1.7418867 2.445673 0
8.502511 -1.7268867 2.4306729 0
-9.4474888 -1.6218867 2.4406729 0
8.5525103 -1.6868868 2.4540062 0
8.6225109 -1.6368867 2.4606729 0
-9.497489 -1.5568867 2.485673 0
8.6825104 -1.5868868 2.4706728 0
8.7325106 -1.5568867 2.4806728 0
-9.5624886 -1.4568868 2.4906728 0
-9.6424885 -1.3368866 2.4906728 0
-9.6974888 -1.2468867 2.4906728 0
-9.7574883 -1.1618867 2.4906728 0
10.14251 -0.68688673 2.4106729 0
10.212511 -0.63688678 2.4206729 0
10.412511 -0.63688678 2.4606729 0
10.422511 -0.54688674 2.4606729 0
10.34251 -0.43188673 2.4406729 0
10.272511 -0.33688676 2.4306729 0
10.30251 -0.35688674 2.4306729 0
-10.334155 -0.26355341 2.4040062 0
10.232511 -0.25688675 2.4206729 0
-10.427489 -0.13688676 2.4206729 0
-10.397489 -0.14688675 2.4206729 0
10.152511 -0.15688676 2.4006729 0
-10.477489 -0.046886761 2.4306729 0
-10.527489 0.043113239 2.4406729 0
-10.707489 0.25311324 2.4806728 0
-10.687489 0.23311323 2.4706728 0
-10.757489 0.35311323 2.4906728 0
-10.807488 0.44311324 2.4906728 0
9.6625109 0.58311325 2.4906728 0
9.6125107 0.6431132 2.4706728 0
9.5625114 0.74311328 2.4556727 0
9.4725103 0.87311321 2.4306729 0
9.4225111 0.93311322 2.4206729 0
9.3675098 1.0331132 2.405673 0
9.4525108 1.2031132 2.4106729 0
8.7825108 1.8831131 2.4906728 0
8.7325106 1.9631132 2.4806728 0
8.7025108 2.0531132 2.4806728 0
8.7025108 2.1131132 2.4806728 0
8.4325104 2.4131131 2.4906728 0
8.3325109 2.5231133 2.4706728 0
8.2575111 2.6431131 2.445673 0
8.2125111 2.7231131 2.4306729 0
7.1025109 2.8931131 2.4406729 0
7.0625105 2.9731131 2.4306729 0
6.9725108 3.0831132 2.4006729 0
7.0325108 3.0131133 2.4206729 0
-10.827489 3.3131132 2.4906728 0
-10.737489 3.3631132 2.4706728 0
-10.617489 3.4431131 2.4506729 0
-10.517488 3.5031133 2.4306729 0
-10.437489 3.5631132 2.4106729 0
6.9925108 3.6931131 2.4006729 0
7.0625105 3.7231131 2.4206729 0
7.3325109 4.073113 2.4906728 0
7.2625108 4.1831131 2.4706728 0
7.3125105 4.1031132 2.4906728 0
7.1725106 4.2931132 2.4506729 0
7.2125106 4.2531133 2.4606729 0
7.0925107 4.3931131 2.4306729 0
7.1325107 4.3531132 2.4406729 0
7.0325108 4.4831133 2.4206729 0
6.9825106 4.573113 2.4106729 0
6.9425106 4.6731133 2.4006729 0
5.6375108 5.0681133 2.4906728 0
5.5725107 5.1531129 2.4606729 0
5.5475111 5.2281132 2.4506729 0
5.6025109 5.2931132 2.4606729 0
5.6525106 5.323113 2.4706728 0
5.7325106 5.3731132 2.4906728 0
-8.7374887 5.7731133 2.4006729 0
-8.7774887 5.8531132 2.4006729 0
6.1525106 5.8431129 2.4506729 0
-8.8474894 5.9331131 2.4206729 0
6.0675106 5.9681129 2.4506729 0
-8.9274893 6.0431132 2.4306729 0
-8.8974886 6.013113 2.4306729 0
6.0125108 6.053113 2.4506729 0
-8.9674892 6.1131129 2.4406729 0
5.9675107 6.1431131 2.4606729 0
-9.0524883 6.243113 2.4556727 0
5.8625107 6.2931132 2.4606729 0
5.9025106 6.243113 2.4606729 0
-9.1174889 6.3431129 2.4706728 0
5.8225107 6.3531132 2.4606729 0
-9.1774893 6.4331131 2.4806728 0
5.7525105 6.4381132 2.4556727 0
-9.2974892 6.573113 2.4006729 0
5.6725106 6.5431132 2.4606729 0
-9.3574886 6.6631131 2.4206729 0
5.6225109 6.6531129 2.4606729 0
-9.4074888 6.743113 2.4406729 0
4.542511 6.7231131 2.4806728 0
5.5725107 6.743113 2.4706728 0
-9.5074892 6.8931131 2.4606729 0
-9.457489 6.803113 2.4506729 0
4.4625106 6.8531132 2.4556727 0
5.4625106 6.8931131 2.4706728 0
5.5025105 6.8431129 2.4706728 0
-9.5774889 6.993113 2.4806728 0
4.3825107 6.9631133 2.4306729 0
4.4125109 6.9031129 2.4406729 0
5.4325109 6.9331131 2.4806728 0
4.3225107 7.053113 2.4106729 0
-9.6874886 7.1631131 2.4006729 0
-9.7424889 7.2531128 2.4156728 0
-9.8274889 7.3831129 2.4406729 0
4.3725109 7.323113 2.4006729 0
4.4425106 7.3831129 2.4206729 0
-9.8774891 7.4531131 2.4506729 0
4.522511 7.4531131 2.4306729 0
-9.9324894 7.5481129 2.4756727 0
4.6375108 7.5431128 2.4556727 0
4.7225108 7.6131129 2.4806728 0
4.792511 7.8631129 2.4806728 0
4.8225107 7.823113 2.4906728 0
4.7375107 7.9431133 2.4706728 0
4.6525106 8.0631132 2.445673 0
4.7025108 8.013113 2.4506729 0
4.5825109 8.1831131 2.4206729 0
4.6425109 8.1031132 2.4406729 0
4.5325108 8.2831135 2.4106729 0
-11.642488 8.9381132 2.485673 0
3.9225109 9.1931133 2.4006729 0
3.8825109 9.2531128 2.4106729 0
3.8175106 9.3431129 2.425673 0
3.7525108 9.4431133 2.4356728 0
3.7025108 9.5331135 2.4506729 0
3.5625107 9.6931133 2.4706728 0
-11.027489 9.7731133 2.4006729 0
3.5625107 9.7531128 2.4006729 0
3.6525109 9.7431126 2.4106729 0
3.7025108 9.7331133 2.4106729 0
-11.077489 9.8531132 2.4106729 0
3.4725108 9.8731127 2.4206729 0
3.5175109 9.8181133 2.4506729 0
-11.137489 9.9331131 2.4306729 0
3.4225109 9.9631128 2.4306729 0
-11.187489 10.013113 2.4406729 0
3.3625109 10.053113 2.4406729 0
-11.307488 10.183113 2.4806728 0
-11.247489 10.103113 2.4606729 0
3.2925107 10.153113 2.4606729 0
-11.357489 10.273113 2.4906728 0
3.2425108 10.243113 2.4706728 0
3.1725109 10.333113 2.485673 0
1.6725109 11.043113 2.4706728 0
1.7525108 11.013113 2.4706728 0
1.8325108 11.063113 2.4906728 0
1.6225108 11.133113 2.4906728 0
2.5025108 11.353113 2.4006729 0
-10.927489 11.423113 2.4906728 0
-10.877489 11.473113 2.4906728 0
2.437511 11.443113 2.4106729 0
2.3625109 11.553113 2.4306729 0
2.4125109 11.513113 2.4206729 0
-9.6074886 12.333113 2.4906728 0
-9.5474892 12.383113 2.4906728 0
-9.4724884 12.428113 2.4906728 0
-9.3874893 12.483113 2.4906728 0
-9.3074884 12.533113 2.4806728 0
-9.2174892 12.573112 2.4306729 0
1.6725109 12.533113 2.4306729 0
-9.1674891 12.618113 2.4506729 0
-9.0724888 12.683113 2.4406729 0
1.5625108 12.673113 2.4506729 0
1.6125108 12.603113 2.4406729 0
-9.0174885 12.733113 2.4706728 0
1.5125109 12.763113 2.4706728 0
-8.9074888 12.813113 2.4706728 0
-8.7974892 12.883113 2.4706728 0
1.4625108 12.843113 2.4906728 0
-8.7274885 12.933113 2.4706728 0
-8.6674891 12.973113 2.4706728 0
1.4375108 12.933113 2.4356728 0
-8.6074886 13.013113 2.4606729 0
-8.5174885 13.073112 2.4606729 0
-8.497489 13.083113 2.4606729 0
1.3625108 13.043113 2.4506729 0
-8.4174891 13.143113 2.4606729 0
1.2725109 13.173113 2.4706728 0
-8.3274889 13.203113 2.4606729 0
-8.2174892 13.203113 2.4506729 0
-8.1174889 13.243113 2.4406729 0
1.2025108 13.263113 2.4806728 0
-8.0274887 13.303113 2.4406729 0
-7.9174891 13.363113 2.465673 0
-7.8774891 13.373113 2.4906728 0
1.1525109 13.353113 2.4906728 0
-7.8174887 13.423113 2.465673 0
-7.7224889 13.483113 2.4606729 0
1.0525109 13.493113 2.4006729 0
-7.6374893 13.538113 2.4606729 0
-7.5674891 13.583113 2.4706728 0
1.0025109 13.563113 2.4206729 0
-7.5274892 13.623113 2.4406729 0
-7.457489 13.658113 2.4556727 0
0.96251088 13.623113 2.4306729 0
-7.3549891 13.730613 2.4506729 0
-7.267489 13.853113 2.4606729 0
0.79251087 13.873113 2.4206729 0
0.82584411 13.873113 2.4373395 0
-7.2174888 13.923113 2.4506729 0
-7.1674891 13.953114 2.4606729 0
-7.0974889 13.983113 2.4706728 0
0.75451088 13.931112 2.4366729 0
-7.0374889 14.038113 2.4606729 0
-6.9474888 14.093113 2.4706728 0
0.65584421 14.043114 2.4473398 0
0.89251083 14.083113 2.4806728 0
-6.9424887 14.123113 2.4506729 0
-6.8474889 14.168114 2.4556727 0
0.57584423 14.156446 2.4673395 0
0.64251089 14.123113 2.4406729 0
-6.7608223 14.233113 2.4573395 0
-6.6974888 14.263113 2.4606729 0
0.52251083 14.269779 2.4440062 0
-6.6374888 14.308113 2.4606729 0
-6.5324888 14.383113 2.4606729 0
0.47751087 14.358112 2.4506729 0
0.50251085 14.313113 2.4006729 0
-6.4424887 14.448112 2.4606729 0
-6.3674889 14.483113 2.4606729 0
0.41751087 14.448112 2.4606729 0
-6.3674889 14.503113 2.4606729 0
-6.2724891 14.553112 2.4606729 0
0.35251087 14.533113 2.4506729 0
-6.2174888 14.643113 2.4706728 0
-6.1508222 14.65978 2.4706728 0
0.24251087 14.683113 2.4806728 0
0.30251086 14.613112 2.4706728 0
-6.0508218 14.726445 2.4706728 0
-5.9474888 14.783113 2.4706728 0
-5.9674888 14.803113 2.4806728 0
-5.8774891 14.848112 2.4756727 0
-5.7574887 14.92978 2.4806728 0
-5.6674891 14.973113 2.4806728 0
-5.6374893 15.013113 2.4806728 0
-5.560822 15.053113 2.4840062 0
-5.4724889 15.118113 2.4906728 0
-5.3808227 15.16978 2.4906728 0
-5.2824888 15.238113 2.4906728 0
-1.2474891 15.393113 2.4006729 0
-1.047489 15.383113 2.4006729 0
-0.21748912 15.353113 2.4006729 0
-1.307489 15.463113 2.4206729 0
-0.95748907 15.433113 2.4106729 0
-0.8674891 15.483113 2.4206729 0
-0.31748912 15.493113 2.4306729 0
-0.25748911 15.423113 2.4106729 0
-1.3574891 15.553113 2.4406729 0
-0.7424891 15.558113 2.4356728 0
-0.37748912 15.583113 2.4506729 0
-1.437489 15.643113 2.4106729 0
-1.3974891 15.643113 2.4606729 0
-0.64748913 15.633113 2.4506729 0
-0.44415578 15.683113 2.4306729 0
-0.38748911 15.618113 2.4006729 0
-1.4674891 15.738113 2.4506729 0
-0.50748909 15.773113 2.4806728 0
-0.47748911 15.753113 2.425673 0
-1.5274891 15.816447 2.4540062 0
-0.57248914 15.853113 2.4406729 0
-4.7124891 15.983113 2.4006729 0
-0.46748912 15.968113 2.4556727 0
-4.6924887 16.043114 2.4106729 0
-4.6208224 16.156446 2.434006 0
-4.5641556 16.249781 2.4506729 0
-4.5324888 16.333113 2.4556727 0
-2.3874891 17.173113 2.4206729 0
-2.5274892 17.293114 2.4006729 0
-2.4408224 17.243113 2.4506729 0
-2.372489 17.218113 2.4506729 0
-2.259989 17.265614 2.4456728 0
-2.5394893 17.353113 2.4286728 0
-2.487489 17.333113 2.4306729 0
-2.227489 17.303112 2.4006729 0
-2.1391556 17.349779 2.4240062 0
-2.0474892 17.383112 2.4606729 0
-1.5574892 17.353113 2.4356728 0
-2.6174891 17.456446 2.4540062 0
-2.5874891 17.433113 2.4406729 0
-2.0441558 17.419779 2.4306729 0
-1.957489 17.466448 2.4473393 0
-1.6224891 17.473114 2.4606729 0
-1.5774891 17.423113 2.4506729 0
-2.6599891 17.538113 2.4531729 0
-1.9199891 17.525612 2.4481728 0
-1.7074891 17.593113 2.4906728 0
-1.6674891 17.543114 2.4756727 0
-2.7324891 17.618114 2.4706728 0
-3.6074891 18.973112 2.465673 0
-3.5641558 18.953112 2.4240062 0
-3.497489 18.953114 2.4006729 0
-3.727489 19.073112 2.4806728 0
-3.6808224 19.059778 2.4640062 0
-3.507489 19.043114 2.4706728 0
-3.437489 19.018112 2.4406729 0
-3.352489 19.073112 2.4506729 0
-3.707489 19.133112 2.4406729 0
-3.4174891 19.113113 2.4806728 0
-3.3174891 19.173113 2.4906728 0
-3.2424889 19.138113 2.425673 0
-3.8074892 19.283113 2.4706728 0
-3.7774889 19.203114 2.4506729 0
-3.237489 19.233112 2.4906728 0
-3.1274891 19.228111 2.4356728 0
-3.0674891 19.273113 2.4406729 0
-3.8874891 19.353113 2.4806728 0
-5.5474892 24.143112 2.4506729 0
-5.477489 24.153112 2.4906728 0
-5.9174891 24.263113 2.4706728 0
-5.8674889 24.223112 2.4606729 0
-5.767489 24.273113 2.4706728 0
-5.6174889 24.273113 2.4706728 0
-5.4274888 24.203114 2.4506729 0
-5.3074889 24.253113 2.4606729 0
-5.7574892 24.383112 2.4806728 0
-5.2874889 24.323112 2.4606729 0
4.3225107 -12.706886 2.5906727 0
4.2025108 -12.576886 2.5606728 0
4.1225109 -12.416886 2.5306728 0
4.0125108 -12.276887 2.5106728 0
3.5125108 -11.476887 2.5806727 0
3.4125109 -11.386887 2.5706728 0
3.3525107 -11.256886 2.5406728 0
3.2525108 -11.156886 2.5206728 0
3.2025108 -11.066887 2.5106728 0
2.8625109 -10.546886 2.5806727 0
2.7825108 -10.466887 2.5606728 0
2.6425109 -10.226887 2.5006728 0
2.7125108 -10.296886 2.5206728 0
-3.767489 -10.106887 2.5406728 0
-3.8174891 -10.046886 2.5306728 0
-3.737489 -10.086886 2.5306728 0
-3.9174891 -9.9068861 2.5106728 0
-3.8674891 -9.9668865 2.5206728 0
-2.8074892 -9.9068861 2.5706728 0
2.4225109 -9.9068861 2.5806727 0
-3.957489 -9.8368864 2.5006728 0
-3.552489 -9.8518867 2.5806727 0
-2.927489 -9.8068867 2.5706728 0
-2.8274891 -9.8868866 2.5706728 0
-3.997489 -9.7768869 2.5906727 0
-3.427489 -9.7668867 2.5606728 0
-3.3174891 -9.7068863 2.5606728 0
-2.957489 -9.7168865 2.5406728 0
-2.8874891 -9.7968864 2.5506728 0
2.2925107 -9.736887 2.5506728 0
2.3725109 -9.7868862 2.5606728 0
-4.0774889 -9.6668863 2.5706728 0
-3.3574891 -9.696887 2.5506728 0
-3.2424889 -9.6468868 2.5456729 0
-3.187489 -9.6168861 2.5506728 0
-2.9624891 -9.6768866 2.5406728 0
-4.1474891 -9.5568867 2.5606728 0
-3.1324892 -9.5618858 2.5256729 0
-3.0474892 -9.5735531 2.5306728 0
2.2425108 -9.5968866 2.5306728 0
-4.1974893 -9.4568863 2.5506728 0
2.1525109 -9.4968863 2.5106728 0
-4.267489 -9.3468866 2.5356727 0
-4.3574891 -9.236887 2.5206728 0
-4.4174891 -9.1568861 2.5206728 0
-4.477489 -9.0518866 2.5056729 0
-2.3574891 -8.696887 2.5206728 0
-2.267489 -8.6468868 2.5006728 0
-1.7524891 -8.5318871 2.5906727 0
-4.8774891 -8.4568863 2.5906727 0
-1.9974891 -8.4768867 2.5906727 0
-1.8874891 -8.4368858 2.5806727 0
-1.677489 -8.4568863 2.5806727 0
-5.1074891 -8.3468866 2.5906727 0
-4.9524889 -8.361887 2.5756726 0
-1.5874891 -8.3468866 2.5606728 0
-5.0474892 -8.2668867 2.5706728 0
-1.4874891 -8.236887 2.5506728 0
-5.0874891 -8.1468868 2.5506728 0
-1.4574891 -8.1668863 2.5406728 0
-1.3874891 -8.1268864 2.5306728 0
-5.142489 -8.0568867 2.5456729 0
-1.3574891 -8.0868864 2.5306728 0
-1.2724891 -8.0468864 2.5206728 0
-5.2374892 -7.9268866 2.5306728 0
-5.187489 -7.9768867 2.5306728 0
-1.1641557 -7.9702201 2.5373394 0
-1.0874891 -7.9118867 2.5356727 0
-5.2874889 -7.8468866 2.5206728 0
-1.0374891 -7.8768864 2.5606728 0
-0.95248914 -7.8268862 2.5456729 0
-5.3474889 -7.7618866 2.5106728 0
-0.90748912 -7.7968864 2.5406728 0
-0.84748912 -7.7568865 2.5206728 0
-0.77748913 -7.7068868 2.5106728 0
-5.4324889 -7.6318865 2.5006728 0
-0.7374891 -7.6768866 2.5006728 0
-0.55748916 -7.5668864 2.5906727 0
-0.48248911 -7.5118866 2.5856729 0
-0.44748911 -7.4868865 2.5706728 0
-0.35748911 -7.4293866 2.5656726 0
-0.25748911 -7.3668866 2.5556726 0
-0.18748912 -7.3218865 2.5456729 0
-0.17748912 -7.2968864 2.5306728 0
-0.060822453 -7.2335534 2.5340061 0
0.039177541 -7.1568866 2.5173395 0
0.16251087 -7.0768867 2.5106728 0
0.22251087 -7.0368867 2.5106728 0
0.30251086 -6.9868865 2.5006728 0
0.72251087 -6.7168865 2.5906727 0
0.85251081 -6.6418867 2.5856729 0
0.91251087 -6.6268868 2.5806727 0
1.0025109 -6.6068864 2.5806727 0
1.1025108 -6.5768867 2.5806727 0
1.2025108 -6.5568867 2.5806727 0
1.3025109 -6.5368867 2.5806727 0
1.3925109 -6.4868865 2.5706728 0
1.4825108 -6.4368868 2.5706728 0
1.5725108 -6.3668866 2.5606728 0
1.6525109 -6.2968864 2.5606728 0
1.7425108 -6.2468867 2.5506728 0
1.8325108 -6.1968865 2.5506728 0
1.9375108 -6.1318865 2.5406728 0
2.0525107 -6.0468864 2.5306728 0
2.1325109 -5.9768867 2.5206728 0
2.2225108 -5.9168868 2.5206728 0
-5.5374889 -5.8368864 2.5706728 0
2.2725108 -5.8868866 2.5206728 0
-5.6174889 -5.7368865 2.5606728 0
-5.6574888 -5.6618867 2.5581727 0
-5.7374892 -5.5418863 2.5456729 0
-5.8224888 -5.4218864 2.5406728 0
-5.7974892 -5.4568868 2.5506728 0
-5.8824892 -5.3318863 2.5356727 0
-5.937489 -5.2468867 2.5406728 0
2.9225109 -4.1868868 2.5506728 0
3.0425107 -4.1768866 2.5606728 0
3.1425109 -4.1668868 2.5606728 0
3.2525108 -4.1568866 2.5706728 0
3.3625109 -4.1468868 2.5706728 0
3.4775109 -4.1418867 2.5756726 0
3.5925107 -4.1268868 2.5806727 0
3.6625109 -4.1068869 2.5406728 0
3.7225108 -4.1268868 2.5906727 0
3.8125107 -4.1068869 2.5906727 0
3.7525108 -4.0968866 2.5006728 0
3.8625107 -4.0868869 2.5106728 0
3.9725108 -4.0868869 2.5206728 0
4.0825109 -4.0768867 2.5306728 0
4.2125106 -4.0668869 2.5406728 0
4.3375111 -4.0618868 2.5506728 0
4.4225106 -4.0468864 2.5506728 0
4.5591774 -4.0335536 2.5673397 0
2.7225108 -3.9568868 2.5106728 0
4.6225109 -3.9568868 2.5606728 0
4.5925107 -3.8568866 2.5406728 0
-6.937489 -3.7268867 2.5206728 0
1.8325108 -3.7268867 2.5406728 0
1.9525108 -3.7268867 2.5456729 0
2.0925109 -3.7168868 2.5506728 0
2.1925108 -3.7068868 2.5606728 0
2.2425108 -3.7168868 2.5606728 0
4.6025109 -3.7468867 2.5206728 0
-7.0074892 -3.6168866 2.5206728 0
-6.9874887 -3.6568866 2.5206728 0
2.2925107 -3.6968868 2.5606728 0
2.3825109 -3.6968868 2.5706728 0
2.5025108 -3.6968868 2.5806727 0
4.5825109 -3.6668866 2.5106728 0
4.6325107 -3.6668866 2.5906727 0
-7.0574889 -3.5468867 2.5306728 0
4.5925107 -3.5768867 2.5006728 0
4.6525106 -3.5468867 2.5356727 0
4.7475109 -3.5368867 2.5456729 0
4.8325109 -3.5318866 2.5506728 0
4.9291773 -3.52022 2.5673392 0
5.0125108 -3.5068867 2.5306728 0
-8.2524891 -3.4368868 2.5006728 0
-7.1274891 -3.4568868 2.5306728 0
5.0825109 -3.4968867 2.5306728 0
5.1625109 -3.4968867 2.5406728 0
5.2675104 -3.4768867 2.5506728 0
5.3425107 -3.4568868 2.5606728 0
-8.2974892 -3.3668866 2.5006728 0
-7.227489 -3.3168867 2.5406728 0
-7.187489 -3.3668866 2.5306728 0
5.4325109 -3.3968866 2.5606728 0
5.5225105 -3.3368866 2.5606728 0
5.6475105 -3.2518868 2.5606728 0
5.7825108 -3.1568866 2.5606728 0
5.8475108 -3.1168866 2.5456729 0
5.8725109 -3.0818868 2.5506728 0
5.9325104 -3.0535533 2.5540061 0
5.7125106 -2.9668868 2.5206728 0
6.0225105 -2.9902201 2.5540059 0
6.1175108 -2.9268868 2.5656729 0
6.1925106 -2.8768866 2.5706728 0
6.2275105 -2.8568866 2.5706728 0
6.312511 -2.8068867 2.5806727 0
-8.7174892 -2.7068868 2.5106728 0
6.3525105 -2.7668867 2.5806727 0
6.4325109 -2.7168868 2.5806727 0
-8.7574883 -2.6618867 2.5206728 0
6.5475111 -2.6368866 2.5806727 0
-8.8274889 -2.5468867 2.5306728 0
6.6725106 -2.5668867 2.5906727 0
-8.9174891 -2.4068868 2.5406728 0
-8.8774891 -2.4568868 2.5306728 0
7.4425106 -2.1268866 2.5006728 0
7.5425105 -2.0868866 2.5206728 0
7.6525106 -2.0468867 2.5506728 0
7.7325106 -2.0168867 2.5706728 0
7.7825108 -1.9868867 2.5806727 0
7.8425107 -1.9668868 2.5906727 0
8.8225107 -1.5168867 2.5006728 0
8.8725109 -1.4868867 2.5106728 0
-9.8274889 -1.0468867 2.5006728 0
-9.9074888 -0.92688674 2.5006728 0
-9.8674889 -0.98688674 2.5006728 0
-9.9674892 -0.84188676 2.5006728 0
-10.037489 -0.72688675 2.5106728 0
-10.097489 -0.63688678 2.5106728 0
-10.187489 -0.51688677 2.5206728 0
-10.237489 -0.44688675 2.5206728 0
-10.277489 -0.37188676 2.5256729 0
-10.367489 -0.24688676 2.5306728 0
-10.427489 -0.14688675 2.5306728 0
-10.482489 -0.061886758 2.5406728 0
-10.757489 0.07311324 2.5806727 0
-10.667489 0.02311324 2.5706728 0
-10.547489 0.043113239 2.5406728 0
10.032511 0.013113239 2.5906727 0
-10.957489 0.16311324 2.5206728 0
-10.647489 0.18311323 2.5506728 0
9.9825106 0.10311323 2.5706728 0
-10.697489 0.24311323 2.5606728 0
9.8725109 0.27311322 2.5406728 0
9.9225111 0.20311323 2.5506728 0
-10.777489 0.35811323 2.5656729 0
9.792511 0.37311324 2.5206728 0
-10.827489 0.45811322 2.5356727 0
9.7425108 0.44311324 2.5106728 0
-10.917489 0.58311325 2.5806727 0
-10.877489 0.52311325 2.5456729 0
9.7125111 0.5131132 2.5006728 0
-10.944156 0.64311326 2.5440061 0
-11.032489 0.75811327 2.5656729 0
-11.107489 0.86311322 2.5606728 0
-11.077489 0.84311324 2.5506728 0
9.3925104 0.8931132 2.5806727 0
-11.147489 0.94311321 2.5706728 0
9.4225111 0.97311324 2.5806727 0
-11.227489 1.0631132 2.5806727 0
-11.187489 1.0131133 2.5706728 0
9.3425102 1.0531132 2.5606728 0
-11.287489 1.1531132 2.5906727 0
9.1825104 1.1831132 2.5606728 0
9.292511 1.1781132 2.5656729 0
9.3225107 1.1231132 2.5906727 0
9.2625103 1.2431132 2.5806727 0
9.1525116 1.3331132 2.5406728 0
9.0525103 1.4831132 2.5406728 0
9.1175108 1.4131132 2.5306728 0
8.9825106 1.5931132 2.5306728 0
9.0225105 1.5331132 2.5306728 0
8.9325104 1.6731132 2.5206728 0
8.8725109 1.7531132 2.5106728 0
8.8225107 1.8231132 2.5006728 0
8.752511 1.9431132 2.5806727 0
8.6925106 2.0231133 2.5706728 0
8.5825109 2.1831131 2.5406728 0
8.6325111 2.1231132 2.5506728 0
-11.307488 2.2531133 2.5906727 0
8.5525103 2.2531133 2.5306728 0
-11.187489 2.3231132 2.5706728 0
8.502511 2.3231132 2.5106728 0
-11.077489 2.4331131 2.5506728 0
-11.137489 2.5331132 2.5606728 0
-11.207489 2.6331131 2.5706728 0
-11.277489 2.7431133 2.5806727 0
-11.337489 2.8231132 2.5906727 0
7.0325108 2.9631131 2.5706728 0
7.1025109 2.9031131 2.5906727 0
6.9825106 3.0731132 2.5506728 0
6.9225106 3.1331131 2.5406728 0
6.8675108 3.2581134 2.5506728 0
6.9375105 3.3356133 2.5381727 0
7.0125108 3.3631132 2.5306728 0
7.0725107 3.4131131 2.5356727 0
7.1725106 3.4731131 2.5506728 0
7.2825108 3.5331132 2.5606728 0
7.3625107 3.5431132 2.5706728 0
7.4425106 3.5731132 2.5806727 0
7.5825105 3.6931131 2.5906727 0
7.5125108 3.7531133 2.5806727 0
7.4775105 3.8381133 2.5506728 0
7.3825107 3.993113 2.5106728 0
7.4425106 3.9031131 2.5206728 0
-9.2674885 4.3731132 2.5306728 0
-9.1874886 4.4331131 2.5106728 0
5.8325109 4.7681131 2.5556726 0
5.7725105 4.8664465 2.5473394 0
5.812511 4.8431129 2.5806727 0
5.6825109 4.9831133 2.5106728 0
5.7258439 4.9464464 2.5273395 0
5.6625109 5.073113 2.5306728 0
5.6025109 5.1431131 2.5206728 0
5.5725107 5.2681131 2.5006728 0
5.6625109 5.3431129 2.5156727 0
5.7625108 5.4031129 2.5306728 0
5.8325109 5.4531131 2.5256729 0
5.9225106 5.493113 2.5306728 0
5.9625106 5.5381131 2.5456729 0
6.0558438 5.5797791 2.5640061 0
6.2225108 5.6931133 2.5906727 0
6.1825104 5.7581129 2.5856729 0
6.1250105 5.8381128 2.5631728 0
6.0691776 5.9364467 2.5506728 0
6.0125108 6.0231133 2.5206728 0
5.9625106 6.1131129 2.5106728 0
-14.032489 6.553113 2.5056729 0
-9.2424889 6.5281134 2.5006728 0
-9.3374891 6.678113 2.5206728 0
-9.2974892 6.6131129 2.5106728 0
-9.4274893 6.7931132 2.5506728 0
-9.3874893 6.7531128 2.5406728 0
-14.047489 6.8931131 2.5106728 0
-13.987489 6.8131132 2.5006728 0
-9.457489 6.8531132 2.5506728 0
-14.087489 6.9731131 2.5206728 0
-9.5124893 6.9381132 2.5706728 0
-14.147489 7.0631132 2.5306728 0
-9.6274891 7.073113 2.5006728 0
-9.5774889 7.0231133 2.5806727 0
-14.197489 7.1431131 2.5406728 0
-9.6674891 7.1431131 2.5106728 0
-14.307488 7.2931132 2.5506728 0
-14.257489 7.2231131 2.5506728 0
-9.7374887 7.2531133 2.5506728 0
-9.7974892 7.323113 2.5806727 0
-9.8374891 7.4031129 2.5906727 0
-9.7574892 7.4831133 2.5406728 0
-9.957489 7.573113 2.5906727 0
4.9025106 7.5931129 2.5206728 0
-10.017488 7.6531129 2.5006728 0
4.9375105 7.6631126 2.5256729 0
4.8725109 7.7531128 2.5073395 0
4.8225107 7.8531132 2.5406728 0
4.7625108 7.9431129 2.5506728 0
4.6925106 8.0331135 2.5606728 0
4.6325107 8.1281128 2.5706728 0
4.5725107 8.2231131 2.5806727 0
4.5325108 8.303113 2.5906727 0
-12.107489 8.6431131 2.5706728 0
-12.007489 8.7031126 2.5506728 0
-11.917489 8.763113 2.5306728 0
-11.827489 8.8231134 2.5206728 0
-11.73749 8.8831129 2.5006728 0
-11.217489 9.2331133 2.5306728 0
-11.137489 9.2731133 2.5306728 0
-11.027489 9.3431129 2.5206728 0
-10.947489 9.4031134 2.5206728 0
-10.877489 9.4631128 2.5106728 0
-11.017488 9.6931133 2.5506728 0
-10.947489 9.6131134 2.5406728 0
-11.087489 9.8231134 2.5706728 0
3.4825108 9.8531132 2.5006728 0
-11.157489 9.9031134 2.5906727 0
3.3925109 9.9831133 2.5106728 0
3.4425108 9.9131126 2.5006728 0
3.3475108 10.058113 2.5256729 0
3.2425108 10.203113 2.5506728 0
-11.407489 10.363113 2.5106728 0
3.1825109 10.303113 2.5706728 0
-11.477489 10.453113 2.5306728 0
3.0825107 10.483113 2.5006728 0
3.127511 10.413113 2.5406728 0
-11.537489 10.543113 2.5406728 0
3.0225108 10.553113 2.5106728 0
-11.617489 10.683113 2.5706728 0
-11.577489 10.623113 2.5606728 0
2.9258442 10.679779 2.5106728 0
-11.677489 10.773113 2.5906727 0
2.8625109 10.778112 2.5306728 0
2.9025109 10.733113 2.5406728 0
2.8275108 10.858113 2.5456729 0
1.7325108 10.993113 2.5406728 0
2.7725108 10.93978 2.5506728 0
-11.562489 11.028112 2.5856729 0
-11.497489 11.053113 2.5706728 0
1.6625109 11.063113 2.5506728 0
1.7825109 11.033113 2.5506728 0
1.8675108 11.083113 2.5306728 0
2.6775107 11.073112 2.5806727 0
2.7275109 11.028112 2.5706728 0
-11.447489 11.103113 2.5656729 0
-11.372489 11.153113 2.5556726 0
1.5725108 11.183113 2.5706728 0
1.6225108 11.133113 2.5606728 0
1.9475108 11.138113 2.5456729 0
2.0175109 11.183113 2.5606728 0
2.6325109 11.143113 2.5806727 0
-11.27249 11.223112 2.5456729 0
-11.182489 11.283113 2.5306728 0
1.5375109 11.255613 2.5531726 0
2.0575109 11.218113 2.5706728 0
2.1325109 11.273113 2.5706728 0
-11.047488 11.373113 2.5140059 0
1.4775108 11.353113 2.5456729 0
-10.937489 11.453113 2.5006728 0
1.4325109 11.433113 2.5606728 0
-9.7574892 12.233113 2.5006728 0
-9.6974888 12.293113 2.5006728 0
-9.207489 12.603113 2.5906727 0
-9.1274891 12.663113 2.5906727 0
-9.0474892 12.713113 2.5806727 0
-8.9424887 12.783113 2.5856729 0
1.5225109 12.733113 2.5906727 0
-8.8624887 12.833113 2.5856729 0
-8.7874889 12.888113 2.5756726 0
-8.707489 12.953113 2.5706728 0
-8.6474886 12.968113 2.5656729 0
1.4025109 12.933113 2.5106728 0
-8.6174889 13.003113 2.5606728 0
-8.5424891 13.048113 2.5606728 0
1.3625108 13.033113 2.5306728 0
-8.4474888 13.108113 2.5556726 0
-8.3624887 13.158113 2.5456729 0
-8.1674891 13.193113 2.5306728 0
1.2525109 13.173113 2.5606728 0
1.3175108 13.118113 2.5506728 0
-8.2524891 13.210612 2.5356729 0
-8.1324892 13.218113 2.5206728 0
-8.0674896 13.263113 2.5106728 0
1.1775109 13.258113 2.5806727 0
-7.9641552 13.336446 2.5140061 0
1.1325109 13.333113 2.5906727 0
-7.8374891 13.423113 2.5206728 0
-7.7574887 13.483113 2.5206728 0
1.0325109 13.493113 2.5106728 0
1.1025108 13.443113 2.5006728 0
-7.6674891 13.543113 2.5106728 0
1.0225109 13.573112 2.5206728 0
-7.6074891 13.623113 2.5206728 0
-7.5274892 13.673113 2.5206728 0
0.94251084 13.673113 2.5406728 0
-7.437489 13.733113 2.5206728 0
-7.3574891 13.783113 2.5206728 0
-7.2974892 13.873113 2.5206728 0
0.77251089 13.893113 2.5706728 0
0.86251086 13.853113 2.5606728 0
-7.227489 13.963113 2.5306728 0
0.75251085 13.963113 2.5806727 0
-7.1474891 14.013113 2.5306728 0
-7.0674891 14.073112 2.5306728 0
0.68251085 14.028112 2.5456729 0
-6.977489 14.143113 2.5306728 0
-6.8874888 14.193113 2.5306728 0
0.57251084 14.193113 2.5406728 0
0.63251084 14.103113 2.5206728 0
-6.8174891 14.243113 2.5306728 0
0.50751084 14.258113 2.5256729 0
-6.747489 14.303113 2.5306728 0
-6.6574888 14.353113 2.5306728 0
0.47251087 14.328113 2.5406728 0
-6.5574889 14.413113 2.5306728 0
-6.477489 14.473113 2.5306728 0
0.35251087 14.493113 2.5506728 0
0.41751087 14.408113 2.5556726 0
-6.3574891 14.548113 2.5306728 0
0.32251087 14.553113 2.5356727 0
-6.2374887 14.633113 2.5306728 0
-6.1574888 14.683113 2.5306728 0
0.25251088 14.64978 2.5673397 0
0.31251088 14.613112 2.5206728 0
-6.0674891 14.743113 2.5406728 0
0.17751087 14.768113 2.5206728 0
0.23251086 14.723113 2.5406728 0
-5.9474888 14.828114 2.5406728 0
0.13751087 14.843113 2.5356727 0
-5.8174891 14.903113 2.5406728 0
-5.7374892 14.963113 2.5406728 0
0.072510876 14.953114 2.5540059 0
-5.6474891 15.013113 2.5506728 0
-5.5574889 15.083113 2.5506728 0
-0.027489122 15.078114 2.5856729 0
0.027510876 15.028112 2.5656729 0
-5.4424887 15.153112 2.5556726 0
-0.057489123 15.163113 2.5906727 0
-5.3474894 15.223113 2.5606728 0
-5.2374892 15.293113 2.5606728 0
-1.1174891 15.243113 2.5806727 0
-1.0774891 15.203113 2.5706728 0
-0.95248914 15.248114 2.5856729 0
-5.1624889 15.330612 2.5181727 0
-5.0974889 15.353113 2.5006728 0
-5.0399895 15.430614 2.5431728 0
-4.9608226 15.536446 2.5273395 0
-4.9174891 15.623113 2.5306728 0
-4.8874888 15.683113 2.5506728 0
-4.8574891 15.74978 2.5606728 0
-4.8074889 15.803113 2.5606728 0
-4.7874889 15.856446 2.5773394 0
-0.57748914 15.893113 2.5106728 0
-4.7524891 15.923113 2.5706728 0
-4.6974888 16.033113 2.5806727 0
-0.5574891 16.013113 2.5306728 0
-4.497489 16.383112 2.5006728 0
-4.457489 16.433113 2.5106728 0
-4.4074888 16.513113 2.5306728 0
-4.3674889 16.573112 2.5406728 0
-2.5374892 17.363113 2.5006728 0
-2.177489 17.323112 2.5006728 0
-2.0774891 17.383112 2.5006728 0
-2.5874891 17.483112 2.5206728 0
-2.0474892 17.423113 2.5006728 0
-1.9574891 17.473112 2.5106728 0
-2.6674891 17.563112 2.5006728 0
-1.937489 17.513113 2.5106728 0
-1.8574891 17.573112 2.5206728 0
-2.717489 17.643112 2.5206728 0
-1.8474891 17.613113 2.5006728 0
-1.7474891 17.669779 2.5040061 0
-1.6974891 17.603113 2.5006728 0
-1.8174891 17.743113 2.5206728 0
-1.8474891 17.803112 2.5506728 0
-3.757489 19.193113 2.5106728 0
-3.267489 19.163113 2.5006728 0
-3.7874889 19.223112 2.5006728 0
-3.2124891 19.243113 2.5056729 0
-3.1374891 19.273113 2.5206728 0
-3.9074891 19.393112 2.5606728 0
-3.8674891 19.318111 2.5306728 0
-3.1474891 19.333113 2.5006728 0
-3.9224892 19.448112 2.5356727 0
-3.9924889 19.508114 2.5456729 0
-5.5374889 24.193113 2.5206728 0
-5.4474888 24.183113 2.5106728 0
-5.5474892 24.243113 2.5006728 0
-5.3474894 24.243113 2.5206728 0
-5.2574892 24.283113 2.5206728 0
-5.7374892 24.363113 2.5206728 0
-5.2374892 24.323112 2.5306728 0
-5.1674891 24.383112 2.5306728 0
-5.1474891 24.403112 2.5406728 0
-5.0574889 24.483112 2.5406728 0
4.5325108 -13.016887 2.6506727 0
4.4025106 -12.866886 2.6206727 0
3.8625107 -12.006886 2.6806729 0
3.7425108 -11.886887 2.6506727 0
3.6825109 -11.756886 2.6306727 0
3.5725107 -11.626886 2.6106727 0
3.1425109 -10.966887 2.6706729 0
3.0525107 -10.876886 2.6506727 0
3.0025108 -10.776887 2.6306727 0
2.9125109 -10.666886 2.6006727 0
2.8625109 -10.566887 2.6906729 0
2.8125107 -10.486887 2.6806729 0
2.7025108 -10.316887 2.6506727 0
2.6625109 -10.226887 2.6406727 0
-3.767489 -10.126886 2.6306727 0
-3.697489 -10.156886 2.6306727 0
2.5625107 -10.116886 2.6206727 0
-3.8174891 -10.056887 2.6206727 0
2.5125108 -10.006886 2.6006727 0
-3.9174891 -9.9068861 2.6006727 0
-3.8574891 -9.9668865 2.6106727 0
-3.927489 -9.8568869 2.6006727 0
-3.247489 -9.6268864 2.6906729 0
-3.142489 -9.5468864 2.675673 0
-3.052489 -9.5518866 2.675673 0
-4.3474889 -9.2568865 2.6856728 0
-4.4474893 -9.1168861 2.6706729 0
-4.5074892 -9.0168867 2.6606729 0
-4.497489 -9.0368862 2.6606729 0
-4.5574889 -8.9368868 2.6506727 0
-4.6374888 -8.8068867 2.6306727 0
-4.5974889 -8.8668861 2.6406727 0
-4.7174892 -8.7168865 2.6206727 0
-4.6674891 -8.7568865 2.6206727 0
-4.7574892 -8.6368866 2.6106727 0
-2.197489 -8.6068869 2.6106727 0
-4.8274889 -8.5218868 2.6456728 0
-2.1074891 -8.5468864 2.6006727 0
-4.8574891 -8.4568863 2.6806729 0
-4.9174891 -8.3768864 2.6706729 0
-1.5274891 -8.2468863 2.6806729 0
-1.4324892 -8.1268864 2.6456728 0
-1.3574891 -8.0768862 2.6306727 0
-1.2574891 -8.0218868 2.6506729 0
-1.2174891 -7.9868865 2.6006727 0
-1.1508224 -7.9602203 2.684006 0
-1.0874891 -7.9368868 2.6706729 0
-1.0624892 -7.8968863 2.6706729 0
-0.94748908 -7.8268867 2.654006 0
-0.84748906 -7.7518864 2.6381726 0
-0.7424891 -7.6918869 2.6256728 0
-0.66748905 -7.633553 2.614006 0
-0.56748909 -7.5768867 2.6006727 0
-0.11748912 -7.2868867 2.6706729 0
-0.037489124 -7.2368865 2.6606729 0
0.052510876 -7.1718864 2.6506727 0
0.14251088 -7.1268864 2.6506727 0
0.16251087 -7.0968866 2.6406727 0
0.24251087 -7.0568867 2.6406727 0
0.30251086 -7.0068865 2.6306727 0
0.36251086 -6.9668865 2.6306727 0
0.44251087 -6.9168868 2.6206727 0
0.53251088 -6.8468866 2.6106727 0
0.62251085 -6.7768865 2.6006727 0
0.70251083 -6.7368865 2.6006727 0
1.4325109 -6.4468865 2.6906729 0
1.5525109 -6.3718867 2.675673 0
1.6725109 -6.2968864 2.6706729 0
1.7575109 -6.2418866 2.6556728 0
1.8925109 -6.1368866 2.6406727 0
1.9725108 -6.0868864 2.6306727 0
2.0225108 -6.0568867 2.6306727 0
2.1025109 -6.0068865 2.6206727 0
2.1725109 -5.9568868 2.6106727 0
2.2125108 -5.9268866 2.6106727 0
2.2725108 -5.8968868 2.6106727 0
-5.7574892 -5.5268865 2.6906729 0
-5.9674888 -5.4668865 2.6906729 0
-5.8474889 -5.4068866 2.6806729 0
-5.767489 -5.4668865 2.6806729 0
3.9425108 -4.1068869 2.6006727 0
3.9125109 -4.0968866 2.6006727 0
4.042511 -4.0868869 2.6006727 0
4.1625109 -4.0868869 2.6106727 0
4.2825108 -4.0768867 2.6206727 0
4.3925109 -4.0668869 2.6206727 0
4.4925108 -4.0568867 2.6306727 0
4.5325108 -4.0668869 2.6306727 0
4.6225109 -4.0268865 2.6306727 0
4.6525106 -3.9068866 2.6206727 0
1.8025109 -3.8968866 2.6506727 0
-8.0474892 -3.7368867 2.6306727 0
1.7775109 -3.7818866 2.6556728 0
1.8525108 -3.7302201 2.6573396 0
1.9525108 -3.7218866 2.6556728 0
2.0491774 -3.7202199 2.6506727 0
2.1175108 -3.7168868 2.6656728 0
2.2325108 -3.7102201 2.6573393 0
2.3325107 -3.7068868 2.6506727 0
4.6125107 -3.7868867 2.6006727 0
2.4325109 -3.6968868 2.6506727 0
2.5425107 -3.6868868 2.6606729 0
5.0325108 -3.5068867 2.6006727 0
5.1125107 -3.5068867 2.6006727 0
5.2325106 -3.4968867 2.6106727 0
5.3425107 -3.4668868 2.6206727 0
5.4025106 -3.4368868 2.6206727 0
5.4725108 -3.3768866 2.6106727 0
5.562511 -3.3168867 2.6106727 0
5.6525106 -3.2668867 2.6106727 0
5.7425108 -3.2068868 2.6106727 0
5.8325109 -3.1468866 2.6206727 0
5.9225106 -3.0868866 2.6206727 0
6.0025105 -3.0268867 2.6206727 0
6.0925107 -2.9668868 2.6206727 0
6.1825109 -2.9168868 2.6206727 0
6.2725105 -2.8468866 2.6206727 0
6.3725109 -2.7968867 2.6206727 0
6.4425106 -2.7268867 2.6106727 0
6.4925108 -2.6868868 2.6106727 0
6.5675106 -2.6368866 2.6156726 0
6.627511 -2.6068866 2.6206727 0
6.6725106 -2.5568867 2.6206727 0
6.7325106 -2.5268867 2.6256728 0
6.7525105 -2.4268868 2.6206727 0
6.855844 -2.4402201 2.6306727 0
6.7425108 -2.3668866 2.6106727 0
6.9825106 -2.3668866 2.6306727 0
7.0725107 -2.3068867 2.6306727 0
7.1825109 -2.2668867 2.6306727 0
7.2725105 -2.2168868 2.6406727 0
7.3025107 -2.2168868 2.6406727 0
7.3825107 -2.1768868 2.6406727 0
7.4675107 -2.1318867 2.6706729 0
7.5525107 -2.1068866 2.6506727 0
7.6325107 -2.0868866 2.6606729 0
7.7175107 -2.0468867 2.6606729 0
7.8325105 -2.0068867 2.6706729 0
7.9491773 -1.94022 2.6606729 0
8.0325108 -1.9068867 2.6556728 0
8.0375099 -1.8768867 2.6706729 0
8.1525106 -1.8468868 2.675673 0
8.2225103 -1.8468868 2.6906729 0
-8.3074894 -1.7068868 2.6706729 0
-8.2774887 -1.7468867 2.6706729 0
8.2325106 -1.7968867 2.6806729 0
-8.3474894 -1.6268867 2.6806729 0
-8.4174891 -1.5268867 2.6906729 0
-8.3874893 -1.5568867 2.6906729 0
-8.4774885 -1.4468868 2.6706729 0
9.9625111 -1.4268867 2.6806729 0
-9.6074886 -1.3468868 2.6406727 0
-8.5074892 -1.3968867 2.6706729 0
9.9225111 -1.3368868 2.6706729 0
-9.6774893 -1.2568867 2.6506727 0
-8.6274891 -1.2168868 2.6706729 0
-8.5774889 -1.2968867 2.6706729 0
9.8725109 -1.2868867 2.6506727 0
-9.747489 -1.1368867 2.6606729 0
-8.6724892 -1.1668867 2.6806729 0
9.7825108 -1.1468867 2.6206727 0
9.8325109 -1.1968868 2.6406727 0
-9.8274889 -1.0268867 2.6806729 0
-9.7874889 -1.0868868 2.6706729 0
9.7325106 -1.0518868 2.6506729 0
-9.8774891 -0.94688672 2.6906729 0
9.6925106 -0.99688673 2.6806729 0
9.7275105 -0.95188677 2.6456728 0
9.8025103 -0.90688676 2.6106727 0
9.8525105 -0.85688674 2.6106727 0
9.9225111 -0.81688672 2.6206727 0
10.01251 -0.74688673 2.6406727 0
10.09251 -0.69688672 2.6506727 0
10.152511 -0.64688677 2.6506727 0
10.202511 -0.65688676 2.6606729 0
10.362511 -0.45688677 2.675673 0
10.26251 -0.33688676 2.6506727 0
10.212511 -0.23688675 2.6406727 0
10.13751 -0.12688676 2.6156726 0
10.082511 -0.026886761 2.6006727 0
-10.857489 0.013113239 2.6006727 0
9.9025106 0.25311324 2.6906729 0
9.7825108 0.36311322 2.6706729 0
9.8225107 0.35311323 2.6906729 0
9.752511 0.45311323 2.6806729 0
9.6825104 0.56311321 2.6606729 0
9.7225113 0.52311325 2.6606727 0
9.5925102 0.69311321 2.6406727 0
9.6325102 0.61811322 2.6406727 0
-11.067489 0.79311323 2.6006727 0
9.5675106 0.73811322 2.6256728 0
-11.127489 0.86311322 2.6106727 0
-11.097488 0.84311324 2.6006727 0
9.4725103 0.87311321 2.6206727 0
9.5175104 0.80811322 2.6306727 0
-11.172489 0.9531132 2.6106727 0
9.4225111 0.93311322 2.6106727 0
-11.237489 1.0431132 2.6206727 0
9.3725109 1.0331132 2.6006727 0
-11.297489 1.1331133 2.6306727 0
-11.407489 1.2831132 2.6406727 0
-11.347488 1.2364465 2.614006 0
-11.432489 1.3581132 2.6356726 0
9.4925108 1.3331132 2.6306727 0
9.502511 1.3531132 2.6406727 0
-11.507489 1.4631132 2.6406727 0
-11.492489 1.4331132 2.6456728 0
9.0725107 1.4631132 2.6806729 0
9.1025105 1.4431132 2.6906729 0
-11.557489 1.5331132 2.6556728 0
9.0325108 1.5381132 2.6656728 0
-11.630821 1.6397799 2.6706727 0
-11.597488 1.6231132 2.6606729 0
8.8825111 1.6931132 2.6706729 0
8.9625101 1.6297798 2.6640062 0
-11.717489 1.7731133 2.6806729 0
-11.677488 1.7181132 2.6806729 0
8.8225107 1.7931132 2.6606729 0
8.9125109 1.7231132 2.6306727 0
-11.742489 1.8181132 2.6906729 0
8.8225107 1.8431132 2.6106727 0
-11.797489 2.0131133 2.6906729 0
-11.557488 2.0731132 2.6406727 0
-11.547489 2.1231132 2.6706729 0
-11.467489 2.1681132 2.6406727 0
-11.387489 2.1831131 2.6106727 0
7.2625108 2.6231132 2.6406727 0
7.1825109 2.7631133 2.6906729 0
7.2125106 2.7331133 2.6206727 0
-11.377489 2.8831131 2.6006727 0
7.1375108 2.8031132 2.6406727 0
-11.397489 2.9031131 2.6006727 0
7.0725107 2.9131131 2.6606729 0
6.9725108 3.0531132 2.6206727 0
7.0125108 3.0131133 2.6406727 0
6.9125109 3.1531131 2.6006727 0
7.0525107 3.3931131 2.6106727 0
